# .PCD v0.7 - Point Cloud Data file format
VERSION 0.7
FIELDS x y z intensity
SIZE 4 4 4 4
TYPE F F F F
COUNT 1 1 1 1
WIDTH 1108
HEIGHT 1
VIEWPOINT -54 105 -1441.24 1 0 0 0
POINTS 1108
DATA ascii
-59.089333 42.652401 -1489.3793 0.89493692
-63.189785 40.495178 -1493.5598 0.090000004
-67.100662 40.435692 -1496.6951 0.090000004
-70.999664 40.38765 -1500.4626 0.090000004
-74.912292 40.35228 -1504.9725 0.090000004
-78.819679 40.238525 -1510.3658 0.090000004
-82.710785 40.124451 -1516.7183 0.090000004
-86.4944 40.134476 -1524.0133 0.090000004
-90.078514 40.307922 -1532.3054 0.090000004
-93.441071 40.512917 -1541.8878 0.090000004
-96.46405 40.753052 -1552.8835 0.090000004
-98.998184 41.033104 -1565.4591 0.090000004
-100.87105 41.248829 -1579.6873 0.090000004
-101.83264 41.40131 -1595.5767 0.090000004
-101.46276 41.61285 -1612.5074 0.090000004
-99.430664 41.855709 -1629.8345 0.090000004
-95.595108 41.889805 -1647.2192 0.090000004
-89.736847 41.736202 -1663.248 0.090000004
-81.731979 41.640205 -1675.4377 0.090000004
-72.161896 41.6203 -1681.9202 0.090000004
-61.822227 41.682632 -1681.7749 0.090000004
-61.655659 43.030941 -1676.6528 0.6272189
-56.318268 41.722794 -1679.3893 0.090000004
-56.277237 42.842716 -1675.1743 0.98321176
-66.668068 41.519585 -1693.2565 0.090000004
-78.189331 41.306297 -1716.2168 0.090000004
-92.805252 39.590683 -1759.5511 0.090000004
-114.53178 35.476372 -1840.9487 0.090000004
-150.88097 28.747971 -1993.1992 0.090000004
-246.92853 6.6575928 -2436.604 0.090000004
-434.89084 -7.6293945e-06 -3290.4048 0.090000004
-245.46423 52.219139 -2370.7686 0.85264283
-1802.6506 0 -9698.3682 0.090000004
1533.5148 -1.5258789e-05 -3051.3623 0.090000004
422.72894 73.468613 -1924.7579 0.92631137
422.72894 73.468613 -1924.7579 0.92631137
422.72894 73.468613 -1924.7579 0.92631137
908.63013 41.330559 -2417.5786 0.95727372
694.62189 7.6293945e-06 -2169.9963 0.090000004
115.89278 81.171227 -1606.6245 0.96745729
439.52386 35.779472 -1921.6677 0.95250684
439.52386 35.779472 -1921.6677 0.95250684
439.52386 35.779472 -1921.6677 0.95250684
646.31323 6.7756653 -2122.9697 0.98313725
432.67023 0.12724304 -1899.1201 0.090000004
112.53754 69.112762 -1597.9255 0.98215854
172.56558 38.876572 -1648.8013 0.090000004
112.0569 56.536102 -1593.368 0.9593606
128.17303 37.45623 -1604.9587 0.090000004
98.698502 35.780228 -1576.907 0.090000004
72.932625 36.36557 -1553.6453 0.090000004
53.357933 36.887741 -1536.8295 0.090000004
37.880615 37.348259 -1524.2723 0.090000004
25.219101 37.719635 -1514.663 0.090000004
14.666954 38.045349 -1507.2444 0.090000004
5.3235016 38.659462 -1501.1248 0.090000004
-2.8856659 39.342941 -1496.1957 0.090000004
-10.0909 39.937408 -1492.335 0.090000004
-16.557148 40.465607 -1489.3149 0.090000004
-22.34086 40.933205 -1487.0331 0.090000004
-27.711159 41.362534 -1485.3257 0.090000004
-32.6628 41.753647 -1484.1533 0.090000004
-37.169132 41.599102 -1483.7972 0.090000004
-41.48407 41.344593 -1483.9263 0.090000004
-41.741211 42.652401 -1483.0493 0.90984398
-45.706955 41.090649 -1484.4692 0.090000004
-49.820339 40.83828 -1485.4254 0.090000004
-53.854465 40.649223 -1486.759 0.090000004
-57.894699 40.561234 -1488.49 0.090000004
-57.659515 44.452396 -1485.6367 0.90273964
-61.881271 40.483032 -1490.6881 0.090000004
-61.616264 42.652397 -1489.0254 0.89499521
-65.855865 40.414337 -1493.407 0.090000004
-69.831696 40.355774 -1496.7039 0.090000004
-73.840973 40.308098 -1500.6755 0.090000004
-77.83989 40.267242 -1505.3661 0.090000004
-81.860512 40.149391 -1510.9569 0.090000004
-85.939468 40.029831 -1517.6198 0.090000004
-89.848373 40.140221 -1525.0967 0.090000004
-93.618729 40.320526 -1533.7284 0.090000004
-97.18689 40.5336 -1543.7062 0.090000004
-100.45995 40.76992 -1555.261 0.090000004
-103.46573 40.721107 -1568.9622 0.090000004
-105.43159 41.132557 -1583.4528 0.090000004
-106.61856 41.285461 -1600.0529 0.090000004
-106.42009 41.499359 -1617.7004 0.090000004
-104.44141 41.792946 -1635.5349 0.090000004
-100.64785 41.781929 -1653.5795 0.090000004
-94.646713 41.628788 -1669.9542 0.090000004
-86.471931 41.536366 -1681.9233 0.090000004
-76.611839 41.524796 -1687.8402 0.090000004
-65.961792 41.599682 -1686.7786 0.090000004
-55.579906 41.724594 -1679.0823 0.090000004
-55.553947 42.764278 -1675.1743 0.98318291
-62.426548 41.584393 -1689.85 0.090000004
-62.234333 43.030945 -1684.179 0.62351656
-73.287331 41.335041 -1713.1182 0.090000004
-86.779587 39.99968 -1754.9535 0.090000004
-105.10857 37.674171 -1825.2437 0.090000004
-136.63965 31.407425 -1969.8674 0.090000004
-212.70108 13.884499 -2354.8855 0.090000004
-390.06491 0 -3259.0957 0.090000004
-227.04822 50.932877 -2377.2993 0.7209571
-1482.3289 0 -8972.9297 0.090000004
-233.2722 91.821259 -2386.5562 0.72661269
2412.2803 0 -4009.0593 0.090000004
416.96457 84.949043 -1931.5946 0.92593682
416.96457 84.949043 -1931.5946 0.92593682
416.96457 84.949043 -1931.5946 0.92593682
849.81488 7.6293945e-06 -2340.844 0.090000004
425.06345 49.345173 -1918.0714 0.94508201
425.06345 49.345173 -1918.0714 0.94508201
425.06345 49.345173 -1918.0714 0.94508201
634.18835 25.050247 -2126.2222 0.94300723
495.03699 0.3532486 -1967.2791 0.090000004
104.78404 74.73568 -1593.3729 0.22358698
202.99002 36.676018 -1680.0149 0.090000004
111.51358 60.99617 -1595.0222 0.98484933
140.33611 38.275726 -1617.6204 0.090000004
106.90671 49.753532 -1587.2798 0.80346322
108.13095 36.24511 -1586.0736 0.090000004
81.183929 36.165619 -1561.0469 0.090000004
59.705162 36.704422 -1542.0643 0.090000004
43.128922 37.170212 -1528.1903 0.090000004
29.571785 37.572708 -1517.5303 0.090000004
18.39679 37.897522 -1509.3585 0.090000004
8.6850929 38.384048 -1502.7632 0.090000004
0.045162201 39.106445 -1497.316 0.090000004
-7.4922256 39.731117 -1493.0356 0.090000004
-14.221512 40.283562 -1489.6616 0.090000004
-20.213177 40.770515 -1487.0764 0.090000004
-25.753881 41.216072 -1485.0941 0.090000004
-30.844353 41.620724 -1483.6689 0.090000004
-35.518692 41.706215 -1482.9146 0.090000004
-39.897602 41.450798 -1482.8026 0.090000004
-40.164253 42.652401 -1482.0167 0.91141605
-44.149025 41.198158 -1483.0905 0.090000004
-44.373562 42.652405 -1482.1366 0.91464126
-48.3335 40.94471 -1483.7841 0.090000004
-48.48457 42.652401 -1482.6499 0.91537672
-52.407494 40.693047 -1484.8773 0.090000004
-56.493916 40.564278 -1486.3284 0.090000004
-60.527889 40.478836 -1488.1938 0.090000004
-64.553947 40.402107 -1490.5417 0.090000004
-68.588867 40.334473 -1493.421 0.090000004
-72.646797 40.276604 -1496.8937 0.090000004
-76.761703 40.229324 -1501.0637 0.090000004
-80.894928 40.177689 -1505.9902 0.090000004
-85.10276 40.054337 -1511.8867 0.090000004
-89.31427 39.994545 -1518.7517 0.090000004
-93.397064 40.152824 -1526.5214 0.090000004
-97.386879 40.341286 -1535.5551 0.090000004
-101.28065 40.451347 -1546.1903 0.090000004
-105.17646 40.252563 -1559.1406 0.090000004
-107.91873 40.913193 -1572.2064 0.090000004
-110.42717 41.01181 -1588.1412 0.090000004
-111.88539 41.16576 -1605.646 0.090000004
-111.88695 41.384918 -1624.3413 0.090000004
-109.95691 41.745438 -1642.7281 0.090000004
-106.25668 41.582977 -1662.1339 0.090000004
-100.08339 41.495323 -1678.6179 0.090000004
-91.609222 41.405045 -1690.5546 0.090000004
-81.34436 41.402641 -1695.8921 0.090000004
-70.25856 41.492283 -1693.79 0.090000004
-59.414738 41.663387 -1684.6194 0.090000004
-59.371468 42.169548 -1682.6743 0.98377109
-58.265018 41.67025 -1684.6089 0.090000004
-58.155659 43.294098 -1678.3687 0.61295354
-68.595406 41.362545 -1708.3323 0.090000004
-80.742699 40.522102 -1747.1449 0.090000004
-96.967529 38.537605 -1813.7937 0.090000004
-122.75655 34.154846 -1940.3433 0.090000004
-176.47014 23.770203 -2235.2622 0.090000004
-341.35883 0 -3188.0916 0.090000004
-242.63489 36.073418 -2587.9497 0.42163363
-1089.9215 -7.6293945e-06 -7598.6592 0.090000004
-247.70412 85.366333 -2592.5989 0.92146528
5120.6738 -7.6293945e-06 -6990.457 0.090000004
722.87787 89.236267 -2274.3484 0.82362866
1075.4381 -7.6293945e-06 -2594.8818 0.090000004
418.40848 61.081791 -1923.7722 0.81867194
418.40848 61.081791 -1923.7722 0.81867194
418.40848 61.081791 -1923.7722 0.81867194
574.19836 0.59152985 -2056.5747 0.090000004
98.930084 79.582558 -1591.0386 0.84763438
426.40286 25.155594 -1911.8057 0.92477334
426.40286 25.155594 -1911.8057 0.92477334
426.40286 25.155594 -1911.8057 0.92477334
377.71982 0.99864197 -1849.5764 0.090000004
110.99864 65.251808 -1597.3018 0.98402911
153.46922 39.219902 -1632.1354 0.090000004
106.44322 54.129944 -1588.8661 0.80390942
117.91544 36.90464 -1596.2634 0.090000004
90.049103 35.98497 -1569.5291 0.090000004
66.556252 36.534492 -1548.1492 0.090000004
48.650841 37.006432 -1532.6787 0.090000004
34.199646 37.433411 -1520.9081 0.090000004
22.269417 37.762131 -1511.8368 0.090000004
12.194328 38.093468 -1504.7413 0.090000004
3.0878754 38.858032 -1498.7271 0.090000004
-4.8074455 39.515274 -1493.9937 0.090000004
-11.817848 40.093529 -1490.2435 0.090000004
-18.030312 40.601051 -1487.3416 0.090000004
-23.750896 41.063572 -1485.077 0.090000004
-28.987379 41.482414 -1483.3966 0.090000004
-33.848267 41.811928 -1482.2499 0.090000004
-38.293003 41.555359 -1481.9071 0.090000004
-38.564598 42.652405 -1481.2039 0.91209137
-42.598564 41.302322 -1481.9591 0.090000004
-43.162407 44.452404 -1479.9453 0.91656744
-46.828247 41.049133 -1482.4044 0.090000004
-47.008045 42.652397 -1481.3723 0.9185735
-50.964775 40.796791 -1483.2422 0.090000004
-51.052502 42.652401 -1482.0283 0.91808844
-55.063679 40.573471 -1484.468 0.090000004
-55.029354 42.652405 -1483.0731 0.91516018
-59.138451 40.481552 -1486.0326 0.090000004
-63.206108 40.397758 -1488.0472 0.090000004
-67.286987 40.322197 -1490.5537 0.090000004
-71.3992 40.255341 -1493.6058 0.090000004
-75.58345 40.197594 -1497.2958 0.090000004
-79.799683 40.150787 -1501.662 0.090000004
-84.09404 40.083923 -1506.8583 0.090000004
-88.493698 39.954933 -1513.0623 0.090000004
-92.857422 40.006554 -1520.1498 0.090000004
-97.168381 40.172829 -1528.3175 0.090000004
-101.52065 40.229263 -1538.0377 0.090000004
-106.08654 39.922272 -1550.0613 0.090000004
-110.24388 39.847939 -1563.5493 0.090000004
-113.06796 40.787544 -1576.9382 0.090000004
-115.94263 40.885292 -1593.8975 0.090000004
-117.73805 41.04213 -1612.6604 0.090000004
-117.80536 41.44738 -1631.7649 0.090000004
-116.27721 41.521851 -1652.3158 0.090000004
-112.58282 41.346191 -1672.8385 0.090000004
-106.19144 41.257526 -1689.9871 0.090000004
-97.253944 41.241226 -1701.7031 0.090000004
-86.440659 41.257927 -1706.3704 0.090000004
-74.703842 41.357891 -1703.0294 0.090000004
-63.464622 41.548325 -1692.4072 0.090000004
-54.470127 41.729439 -1678.2561 0.090000004
-54.464012 42.552094 -1675.1743 0.98308295
-64.088943 41.437351 -1701.5588 0.090000004
-75.003418 41.114639 -1736.9958 0.090000004
-89.348236 39.134712 -1800.9691 0.090000004
-109.79292 36.937233 -1906.5107 0.090000004
-152.85027 27.574631 -2170.1689 0.090000004
-285.20221 1.9453964 -3037.564 0.090000004
-221.2619 30.445732 -2596.0913 0.95079905
-776.92279 -7.6293945e-06 -6336.5947 0.090000004
-224.80232 80.192032 -2597.8477 0.94677967
-279.11584 72.303329 -2965.6377 0.95962536
309.57013 105.72408 -1844.5693 0.9587521
1431.5195 -7.6293945e-06 -3004.1216 0.090000004
416.16962 71.767303 -1935.8948 0.9745906
416.16962 71.767303 -1935.8948 0.9745906
416.16962 71.767303 -1935.8948 0.9745906
732.42157 49.413876 -2268.6162 0.095395565
678.96002 0.022773743 -2177.7954 0.090000004
113.92583 80.949043 -1609.9895 0.96553242
420.35236 37.061516 -1917.9192 0.8380661
420.35236 37.061516 -1917.9192 0.8380661
420.35236 37.061516 -1917.9192 0.8380661
429.95718 -7.6293945e-06 -1908.9596 0.090000004
110.05098 69.407272 -1599.7867 0.97772628
174.08159 38.428101 -1654.8027 0.090000004
109.82768 57.182373 -1594.639 0.95134544
128.32422 37.658646 -1607.8481 0.090000004
115.61255 42.353691 -1596.2322 0.99775499
99.473236 35.874084 -1579.145 0.090000004
73.828369 36.384705 -1555.0828 0.090000004
54.460716 36.859581 -1537.796 0.090000004
38.988098 37.287735 -1524.7437 0.090000004
26.290138 37.640678 -1514.7054 0.090000004
15.694885 37.946495 -1506.9258 0.090000004
6.2488518 38.596947 -1500.4436 0.090000004
-2.0312233 39.289314 -1495.218 0.090000004
-9.3422813 39.895241 -1491.0648 0.090000004
-15.82687 40.427597 -1487.811 0.090000004
-21.666477 40.90229 -1485.2839 0.090000004
-27.091116 41.338638 -1483.3292 0.090000004
-32.096146 41.736805 -1481.9059 0.090000004
-36.67067 41.658485 -1481.2241 0.090000004
-41.031303 41.404865 -1481.051 0.090000004
-41.094032 41.712486 -1480.8584 0.76142955
-45.306252 41.151764 -1481.2627 0.090000004
-45.39407 41.796726 -1480.8584 0.76381028
-49.47966 40.900116 -1481.856 0.090000004
-49.590683 42.474464 -1480.8584 0.76714361
-53.584492 40.648003 -1482.8331 0.090000004
-53.597435 42.652397 -1481.5376 0.91991711
-57.719421 40.490349 -1484.1678 0.090000004
-57.513157 44.067814 -1481.7872 0.57535821
-61.82119 40.40023 -1485.8806 0.090000004
-65.937759 40.317757 -1488.0516 0.090000004
-70.090622 40.24308 -1490.7274 0.090000004
-74.324432 40.176323 -1493.989 0.090000004
-78.605194 40.119125 -1497.8712 0.090000004
-82.971184 40.072258 -1502.4828 0.090000004
-87.457733 39.985306 -1507.9875 0.090000004
-92.066071 39.878983 -1514.5118 0.090000004
-96.616089 40.025337 -1521.8905 0.090000004
-101.27778 40.087982 -1530.6788 0.090000004
-106.3524 39.693413 -1541.7645 0.090000004
-111.35928 39.349281 -1554.6271 0.090000004
-115.16943 40.133171 -1567.4587 0.090000004
-118.76245 40.654579 -1582.6808 0.090000004
-122.08649 40.751411 -1600.9114 0.090000004
-124.17458 41.011139 -1620.704 0.090000004
-124.44772 41.509449 -1641.1173 0.090000004
-123.45451 41.253532 -1664.4342 0.090000004
-119.78342 41.059269 -1686.3141 0.090000004
-113.4973 40.543503 -1706.1293 0.090000004
-103.90572 40.58091 -1717.8549 0.090000004
-92.057304 41.010292 -1720.0664 0.090000004
-79.550262 41.298328 -1714.5444 0.090000004
-67.591156 41.406998 -1702.3966 0.090000004
-57.052586 41.683514 -1684.0837 0.090000004
-56.979343 43.20266 -1678.2572 0.61877406
-59.948143 41.558678 -1693.282 0.090000004
-59.874802 42.340916 -1690.1743 0.98474866
-69.814003 41.355404 -1726.8499 0.090000004
-82.294601 39.644669 -1786.3546 0.090000004
-98.917931 38.563461 -1877.8009 0.090000004
-129.95856 32.804611 -2086.3201 0.090000004
-221.87001 11.465515 -2772.5757 0.090000004
-550.4408 -7.6293945e-06 -5319.3716 0.090000004
312.64822 86.895226 -1840.054 0.97038615
2072.4038 7.6293945e-06 -3754.1912 0.090000004
720.45355 66.758148 -2283.6357 0.75710815
811.99646 0 -2337.3774 0.090000004
411.72635 48.531796 -1923.176 0.5564853
411.72635 48.531796 -1923.176 0.5564853
411.72635 48.531796 -1923.176 0.5564853
485.44666 0.31287384 -1975.9478 0.090000004
123.67532 70.519638 -1617.3545 0.83834791
419.24875 13.1595 -1910.3314 0.29111955
419.24875 13.1595 -1910.3314 0.29111955
419.24875 13.1595 -1910.3314 0.29111955
203.16376 36.128632 -1687.2102 0.090000004
108.65642 61.438774 -1596.8165 0.9517684
139.36531 38.518639 -1620.9928 0.090000004
103.0787 50.994423 -1587.2606 0.8076483
108.07596 36.434509 -1588.7612 0.090000004
81.688049 36.25692 -1563.1046 0.090000004
60.456589 36.73571 -1543.5068 0.090000004
43.987907 37.15905 -1529.1112 0.090000004
30.461601 37.534843 -1517.994 0.090000004
19.28894 37.834549 -1509.4375 0.090000004
9.5352783 38.322525 -1502.4852 0.090000004
0.8417244 39.052727 -1496.7213 0.090000004
-6.7474976 39.684631 -1492.1575 0.090000004
-13.527195 40.244019 -1488.5201 0.090000004
-19.566338 40.737503 -1485.6885 0.090000004
-25.154211 41.189487 -1483.4628 0.090000004
-30.291227 41.60054 -1481.7954 0.090000004
-35.030769 41.760284 -1480.7413 0.090000004
-39.448528 41.505859 -1480.3506 0.090000004
-43.743732 41.254181 -1480.3387 0.090000004
-47.979195 41.001598 -1480.7036 0.090000004
-52.112461 40.750664 -1481.439 0.090000004
-52.139717 41.678493 -1480.8584 0.76512164
-56.275852 40.50457 -1482.5696 0.090000004
-56.200062 42.652393 -1481.1931 0.92079449
-60.406528 40.40876 -1484.0066 0.090000004
-60.18399 42.652401 -1482.5211 0.91548097
-64.551247 40.320091 -1485.8735 0.090000004
-68.733711 40.238579 -1488.2102 0.090000004
-73.002373 40.164047 -1491.0874 0.090000004
-77.32695 40.097946 -1494.5364 0.090000004
-81.725044 40.040962 -1498.6268 0.090000004
-86.295174 39.993439 -1503.5416 0.090000004
-91.010986 39.881149 -1509.4005 0.090000004
-95.799454 39.896271 -1516.1821 0.090000004
-100.64977 40.013733 -1524.0575 0.090000004
-106.09717 39.549545 -1534.2268 0.090000004
-111.64424 39.113411 -1546.1366 0.090000004
-116.83617 39.126335 -1559.3727 0.090000004
-120.52657 40.468933 -1572.1405 0.090000004
-125.11742 40.512413 -1589.6211 0.090000004
-129.00002 40.608147 -1609.4346 0.090000004
-131.24088 41.163811 -1630.1526 0.090000004
-132.43716 41.217834 -1654.0042 0.090000004
-131.99693 40.740234 -1680.1301 0.090000004
-129.19466 39.773415 -1707.0912 0.090000004
-122.38039 39.354233 -1728.0942 0.090000004
-111.90229 39.424477 -1740.0676 0.090000004
-98.719299 40.013939 -1740.6182 0.090000004
-84.830872 40.946869 -1730.3 0.090000004
-71.814606 41.343681 -1714.4749 0.090000004
-60.681446 41.543835 -1694.1818 0.090000004
-60.575588 42.549187 -1690.1743 0.98481244
-56.25341 41.689442 -1683.9777 0.090000004
-56.24131 42.029373 -1682.6743 0.98379511
-65.168755 41.382641 -1716.3909 0.090000004
-76.005157 39.854469 -1771.6522 0.090000004
-90.11129 38.782471 -1856.8484 0.090000004
-111.88164 36.44619 -2015.6851 0.090000004
-164.37155 26.417496 -2459.9607 0.090000004
-387.84698 0 -4494.436 0.090000004
-248.51039 43.823498 -3220.1338 0.64019161
179.49838 132.02446 -1741.5 0.066618323
189.76451 115.37669 -1733.8253 0.95680392
305.14856 94.371651 -1846.5573 0.69150037
3494.114 -7.6293945e-06 -5445.4648 0.090000004
313.3439 68.141151 -1834.1743 0.14063832
992.45447 0 -2560.5942 0.090000004
726.11255 26.724434 -2275.6978 0.92047119
552.3465 0.5513382 -2060.0029 0.090000004
419.73611 23.394676 -1924.6771 0.54204488
419.73611 23.394676 -1924.6771 0.54204488
419.73611 23.394676 -1924.6771 0.54204488
371.34805 0.84335327 -1858.4043 0.090000004
107.52693 65.446266 -1599.6592 0.98027587
151.03026 39.497673 -1635.8802 0.090000004
115.09853 50.977013 -1601.7694 0.99528563
116.94402 37.135818 -1599.4686 0.090000004
89.865967 36.164536 -1572.0657 0.090000004
66.858879 36.633797 -1550.0742 0.090000004
49.200592 37.050446 -1534.0607 0.090000004
34.796471 37.438698 -1521.7483 0.090000004
22.998734 37.737854 -1512.3224 0.090000004
12.954247 38.033913 -1504.8762 0.090000004
3.815197 38.805046 -1498.5193 0.090000004
-4.1158867 39.468506 -1493.4845 0.090000004
-11.164459 40.052925 -1489.4596 0.090000004
-17.415306 40.56633 -1486.3051 0.090000004
-23.175108 41.03471 -1483.7961 0.090000004
-28.451338 41.459339 -1481.8778 0.090000004
-33.370743 41.850983 -1480.4557 0.090000004
-37.850689 41.605465 -1479.8458 0.090000004
-42.1926 41.353565 -1479.6212 0.090000004
-42.767483 44.452396 -1477.7524 0.92286873
-46.464985 41.101379 -1479.7666 0.090000004
-50.626228 40.851418 -1480.2753 0.090000004
-54.811413 40.595604 -1481.1682 0.090000004
-58.968212 40.422585 -1482.3959 0.090000004
-58.796661 42.652397 -1480.9749 0.92076504
-63.134884 40.328384 -1483.985 0.090000004
-62.806618 42.652401 -1482.449 0.91425538
-67.338524 40.24086 -1486.0138 0.090000004
-71.604279 40.160011 -1488.5272 0.090000004
-75.98365 40.085762 -1491.6035 0.090000004
-80.447296 40.019539 -1495.2786 0.090000004
-85.043716 39.961853 -1499.6597 0.090000004
-89.793709 39.914047 -1504.8582 0.090000004
-94.773376 39.783363 -1511.111 0.090000004
-99.771179 39.920349 -1518.202 0.090000004
-105.39227 39.479164 -1527.3479 0.090000004
-111.36518 38.9673 -1538.3717 0.090000004
-117.52228 38.477509 -1551.3505 0.090000004
-122.29688 39.471008 -1563.9503 0.090000004
-127.0069 40.319901 -1578.8718 0.090000004
-132.31363 40.359077 -1598.1324 0.090000004
-136.49921 40.744453 -1619.0015 0.090000004
-139.43105 41.235031 -1642.0469 0.090000004
-142.0567 40.657944 -1670.6377 0.090000004
-143.28006 39.257309 -1703.369 0.090000004
-140.66635 38.18074 -1733.9482 0.090000004
-136.407 35.106102 -1769.5576 0.090000004
-123.17407 36.221489 -1777.5117 0.090000004
-106.91589 38.495331 -1768.5126 0.090000004
-90.953117 39.892517 -1753.1309 0.090000004
-76.344398 41.317116 -1729.4633 0.090000004
-64.402397 41.387138 -1706.7296 0.090000004
-54.976585 41.716091 -1680.5327 0.090000004
-54.956295 43.030945 -1675.5609 0.62783527
-61.063354 41.414612 -1705.0121 0.090000004
-60.883804 43.030941 -1698.307 0.61713475
-70.310089 40.749046 -1752.8645 0.090000004
-82.012154 39.200577 -1832.03 0.090000004
-98.15538 38.643219 -1961.084 0.090000004
-131.25955 32.765244 -2284.5537 0.090000004
-269.46646 3.8827286 -3789.6479 0.090000004
-97.899643 84.398125 -1919.7102 0.99745166
181.12659 119.34648 -1736.6008 0.81494546
498.5993 99.155029 -2091.0964 0.70967954
189.69832 102.42235 -1727.8291 0.096954077
832.11517 95.627357 -2483.3108 0.69808829
307.82309 75.836563 -1842.8792 0.91742361
1248.7074 0 -2887.3013 0.090000004
705.79834 43.759212 -2284.6489 0.85840976
332.12534 46.627232 -1848.5955 0.84937525
640.55347 0.00039672852 -2173.9819 0.090000004
110.74792 80.094116 -1615.0461 0.96264523
406.95099 35.315414 -1927.5353 0.85771012
406.95099 35.315414 -1927.5353 0.85771012
406.95099 35.315414 -1927.5353 0.85771012
416.61469 -7.6293945e-06 -1916.3472 0.090000004
105.76483 69.354477 -1602.5299 0.98001301
421.93646 -1.1873627 -1921.7197 0.83008051
421.93646 -1.1873627 -1921.7197 0.83008051
421.93646 -1.1873627 -1921.7197 0.83008051
172.40012 37.90181 -1661.5782 0.090000004
105.57967 57.705387 -1596.5469 0.95496547
126.17609 37.928551 -1611.5057 0.090000004
113.23178 42.747135 -1599.2734 0.99782157
98.359421 36.172379 -1582.0859 0.090000004
73.561546 36.561829 -1557.4896 0.090000004
54.625168 36.965584 -1539.6494 0.090000004
39.391663 37.341797 -1526.0942 0.090000004
26.822563 37.65844 -1515.609 0.090000004
16.297371 37.934029 -1507.4436 0.090000004
6.8942871 38.545586 -1500.6326 0.090000004
-1.4020119 39.242928 -1495.0823 0.090000004
-8.7370682 39.854088 -1490.6376 0.090000004
-15.211468 40.388611 -1487.1382 0.090000004
-21.153214 40.874352 -1484.3306 0.090000004
-26.575293 41.313175 -1482.1514 0.090000004
-31.614038 41.716652 -1480.4935 0.090000004
-36.238075 41.703754 -1479.5278 0.090000004
-40.628471 41.451424 -1479.0955 0.090000004
-44.93882 41.199463 -1479.0303 0.090000004
-49.153603 40.948891 -1479.327 0.090000004
-53.333511 40.696068 -1479.9878 0.090000004
-57.509953 40.4412 -1481.0244 0.090000004
-57.376698 42.892181 -1479.514 0.90139222
-61.694553 40.341988 -1482.3575 0.090000004
-61.419605 42.652405 -1480.8883 0.91980338
-65.91362 40.249039 -1484.1051 0.090000004
-70.193871 40.16227 -1486.3055 0.090000004
-74.589638 40.081299 -1489.0277 0.090000004
-79.074463 40.007446 -1492.3033 0.090000004
-83.702087 39.940826 -1496.2288 0.090000004
-88.499718 39.882439 -1500.9049 0.090000004
-93.508423 39.807945 -1506.4822 0.090000004
-98.69957 39.805267 -1513.0264 0.090000004
-104.39386 39.463936 -1521.2073 0.090000004
-110.63574 38.895798 -1531.3105 0.090000004
-117.20621 38.329369 -1543.2932 0.090000004
-123.32077 38.533066 -1556.2583 0.090000004
-128.25369 39.892639 -1569.3333 0.090000004
-134.35788 40.157661 -1587.0889 0.090000004
-140.24936 40.34906 -1607.7631 0.090000004
-145.03522 40.933411 -1630.569 0.090000004
-149.74286 40.788521 -1658.672 0.090000004
-155.02867 39.038239 -1695.28 0.090000004
-161.37318 34.761917 -1745.1079 0.090000004
-165.00781 29.390343 -1801.6332 0.090000004
-156.98729 28.172058 -1834.2358 0.090000004
-137.92932 32.140579 -1828.0852 0.090000004
-116.73495 36.617592 -1804.901 0.090000004
-97.97406 38.860977 -1781.1844 0.090000004
-81.634125 40.281548 -1752.9441 0.090000004
-68.226311 41.364708 -1721.5261 0.090000004
-58.090088 41.579865 -1692.4049 0.090000004
-57.880421 44.83094 -1679.5295 0.62239468
-57.572575 41.578335 -1692.7933 0.090000004
-57.389355 44.83094 -1679.8923 0.62222344
-65.449738 41.380985 -1734.6902 0.090000004
-75.026482 39.917885 -1805.782 0.090000004
-87.381271 39.569374 -1916.99 0.090000004
-108.72702 36.271446 -2161.1455 0.090000004
-166.13651 26.08638 -2930.2295 0.090000004
-705.63495 0 -11007.15 0.090000004
175.13884 122.86265 -1743.8087 0.96130723
184.09375 106.78224 -1734.3586 0.93241924
504.70221 70.269829 -2087.4629 0.91060871
298.6022 83.081467 -1849.0773 0.93800682
1635.1288 0 -3394.9707 0.090000004
194.63972 89.543999 -1728.8291 0.97481263
837.65948 49.572464 -2472.5776 0.9242276
315.18616 56.344234 -1845.3949 0.91422164
742.71027 -7.6293945e-06 -2313.4136 0.090000004
410.60529 43.768761 -1949.8521 0.95803088
410.60529 43.768761 -1949.8521 0.95803088
410.60529 43.768761 -1949.8521 0.95803088
197.87222 71.805267 -1716.9692 0.9748261
330.40964 27.116264 -1842.2842 0.91762316
463.20514 0.21108246 -1980.8262 0.090000004
411.19589 10.748474 -1926.5663 0.83445358
411.19589 10.748474 -1926.5663 0.83445358
411.19589 10.748474 -1926.5663 0.83445358
199.03207 35.534378 -1694.6893 0.090000004
103.50471 61.759781 -1599.0044 0.95609164
135.71246 38.821617 -1624.9946 0.090000004
112.43822 46.940498 -1602.4514 0.99675059
106.16702 36.698997 -1592.3615 0.090000004
80.688232 36.524399 -1565.9792 0.090000004
60.249542 36.9095 -1545.938 0.090000004
44.055962 37.270142 -1530.9203 0.090000004
30.756653 37.598564 -1519.3312 0.090000004
19.716347 37.861603 -1510.3613 0.090000004
10.081573 38.27388 -1503.0848 0.090000004
1.3959122 39.007584 -1496.9678 0.090000004
-6.2428932 39.64727 -1492.0662 0.090000004
-12.992962 40.207375 -1488.1743 0.090000004
-19.051502 40.705307 -1485.0869 0.090000004
-24.66284 41.161934 -1482.6169 0.090000004
-29.826206 41.577763 -1480.7155 0.090000004
-34.611465 41.800739 -1479.3901 0.090000004
-39.052254 41.547825 -1478.7528 0.090000004
-43.401394 41.296043 -1478.4827 0.090000004
-43.665573 42.883923 -1477.5543 0.92173666
-47.645054 41.046185 -1478.5723 0.090000004
-51.819103 40.796288 -1479.0139 0.090000004
-56.033585 40.539658 -1479.8271 0.090000004
-60.235538 40.360313 -1480.9675 0.090000004
-64.465103 40.262505 -1482.4559 0.090000004
-68.75351 40.170464 -1484.3702 0.090000004
-73.156219 40.083611 -1486.7705 0.090000004
-77.649811 40.003143 -1489.6847 0.090000004
-82.262596 39.929321 -1493.175 0.090000004
-87.112122 39.861526 -1497.4032 0.090000004
-92.145241 39.802086 -1502.4121 0.090000004
-97.45504 39.704422 -1508.4152 0.090000004
-103.14214 39.495911 -1515.6864 0.090000004
-109.55316 38.885506 -1524.9177 0.090000004
-116.39952 38.260635 -1535.9263 0.090000004
-123.69032 37.676216 -1549.0616 0.090000004
-129.36069 38.932899 -1561.4801 0.090000004
-135.30072 40.000305 -1576.4967 0.090000004
-142.66283 39.98336 -1596.7358 0.090000004
-149.15332 40.525688 -1619.131 0.090000004
-155.36176 40.91188 -1645.7095 0.090000004
-164.05963 39.090134 -1683.6947 0.090000004
-176.10739 34.297127 -1739.0513 0.090000004
-210.91098 14.577003 -1871.5341 0.090000004
-203.19157 16.001129 -1909.6053 0.090000004
-189.47653 24.182709 -1866.549 0.98196971
-182.41029 21.483696 -1913.3097 0.090000004
-156.47194 27.7089 -1893.4968 0.090000004
-130.3792 32.837463 -1861.5303 0.090000004
-106.22148 37.645103 -1817.1504 0.090000004
-87.453491 39.401054 -1780.9172 0.090000004
-72.291084 41.088551 -1740.9025 0.090000004
-61.22419 41.405766 -1706.9358 0.090000004
-61.039574 43.030941 -1700.1459 0.61634678
-54.624878 41.717461 -1680.2983 0.090000004
-54.611908 43.030949 -1675.3365 0.62795037
-61.427979 41.404564 -1719.0182 0.090000004
-61.258339 42.856953 -1712.6743 0.98722434
-69.366768 40.155846 -1783.0522 0.090000004
-74.792618 50.379925 -1808.6665 0.90378475
-78.874878 39.656258 -1880.8041 0.090000004
-92.118294 39.142632 -2059.6504 0.090000004
-119.81321 34.777039 -2536.2915 0.090000004
-300.39868 0.074478149 -6178.0811 0.090000004
176.77931 110.42264 -1739.8809 0.93852049
2268.4705 -7.6293945e-06 -4252.2939 0.090000004
1038.9026 55.589352 -2764.0586 0.93224007
686.50513 71.521408 -2337.5269 0.90328175
818.47028 65.555199 -2497.2537 0.97358167
509.25732 40.898323 -2083.7283 0.97656715
300.29599 64.679237 -1845.3732 0.77261174
868.62842 -7.6293945e-06 -2493.6504 0.090000004
310.79874 38.080276 -1836.1372 0.98421013
515.2146 0.58163452 -2057.4189 0.090000004
402.95828 21.174263 -1935.9005 0.95575595
402.95828 21.174263 -1935.9005 0.95575595
402.95828 21.174263 -1935.9005 0.95575595
356.54877 0.70666504 -1866.1758 0.090000004
146.1945 39.579422 -1640.7865 0.090000004
113.82661 37.438484 -1603.5111 0.090000004
87.892242 36.555931 -1575.326 0.090000004
65.93679 36.890099 -1552.8756 0.090000004
48.855606 37.225769 -1536.3409 0.090000004
34.801788 37.553406 -1523.5345 0.090000004
23.214859 37.808121 -1513.667 0.090000004
13.310555 38.058105 -1505.8387 0.090000004
4.279808 38.762077 -1499.1616 0.090000004
-3.6350975 39.428307 -1493.7897 0.090000004
-10.68161 40.016075 -1489.4639 0.090000004
-16.93961 40.533173 -1486.0398 0.090000004
-22.713297 41.005619 -1483.278 0.090000004
-28.00745 41.434402 -1481.1216 0.090000004
-32.948807 41.830383 -1479.4688 0.090000004
-37.46413 41.642899 -1478.5868 0.090000004
-41.827724 41.392593 -1478.1168 0.090000004
-46.127048 41.141861 -1478.0039 0.090000004
-50.321384 40.893166 -1478.241 0.090000004
-54.54752 40.638382 -1478.8372 0.090000004
-58.761322 40.382919 -1479.7955 0.090000004
-58.580566 42.83601 -1478.3319 0.88341045
-62.998581 40.280647 -1481.0435 0.090000004
-67.28997 40.183884 -1482.6941 0.090000004
-71.693146 40.091858 -1484.7999 0.090000004
-76.185791 40.005608 -1487.3853 0.090000004
-80.827438 39.924805 -1490.526 0.090000004
-85.653351 39.849785 -1494.304 0.090000004
-90.700478 39.781296 -1498.8219 0.090000004
-96.00943 39.720406 -1504.2085 0.090000004
-101.69676 39.566185 -1510.7332 0.090000004
-108.19684 38.925194 -1519.1497 0.090000004
-115.20766 38.257271 -1529.2268 0.090000004
-122.83602 37.558701 -1541.3961 0.090000004
-129.76306 38.051003 -1554.0798 0.090000004
-135.99475 39.416748 -1567.5967 0.090000004
-143.75482 39.813194 -1585.9019 0.090000004
-151.78508 40.14444 -1607.7041 0.090000004
-159.52383 40.754326 -1633.1531 0.090000004
-170.17911 39.441101 -1669.4155 0.090000004
-185.03143 35.529411 -1722.4879 0.090000004
-248.38751 6.187706 -1903.2465 0.090000004
-250.62186 6.3160782 -1966.3936 0.090000004
-244.11156 6.8347626 -2022.1753 0.090000004
-190.69273 34.417892 -1858.9402 0.80119187
-221.50932 11.182014 -2037.8271 0.090000004
-174.7774 37.355453 -1871.3906 0.98936909
-182.39035 21.577942 -1988.8125 0.090000004
-147.02606 29.397919 -1931.3674 0.090000004
-116.93613 35.369904 -1869.1367 0.090000004
-93.923294 38.706482 -1814.6146 0.090000004
-76.939598 39.900009 -1769.2672 0.090000004
-64.308853 41.387676 -1723.5756 0.090000004
-55.931622 41.649151 -1687.5748 0.090000004
-55.893196 42.909431 -1682.6743 0.98422885
-58.201656 41.442749 -1704.0435 0.090000004
-57.977669 44.83094 -1690.0336 0.61751914
-64.605293 40.778519 -1758.6824 0.090000004
-71.96196 39.745232 -1846.7307 0.090000004
-71.810646 61.474102 -1808.0997 0.90571892
-80.769882 39.579399 -1992.6401 0.090000004
-94.048401 38.799904 -2308.217 0.090000004
-132.00784 32.489258 -3533.0994 0.090000004
3400.8755 0 -5835.1846 0.090000004
177.17616 97.974129 -1735.2521 0.73440069
592.65717 85.346901 -2263.6648 0.96155477
492.85651 51.737381 -2094.0342 0.92419618
295.69955 70.940033 -1858.6838 0.97234225
1024.0532 -7.6293945e-06 -2728.1353 0.090000004
192.62236 80.979523 -1735.6384 0.92066622
699.95398 31.566544 -2341.251 0.96215481
821.78955 19.700027 -2486.6885 0.96298987
513.78082 10.877625 -2081.677 0.98258394
299.75549 46.357113 -1840.2639 0.61541486
578.06671 0.22078705 -2154.1895 0.090000004
201.58112 62.63171 -1729.5266 0.96485597
308.3927 19.842705 -1830.4429 0.9187389
392.83475 -1.5258789e-05 -1921.1321 0.090000004
99.65863 68.892342 -1606.2665 0.98304737
167.07211 37.311783 -1668.9336 0.090000004
121.53964 38.263847 -1615.8853 0.090000004
95.195038 36.685722 -1585.6904 0.090000004
71.879456 36.91024 -1560.7509 0.090000004
53.766739 37.213882 -1542.4072 0.090000004
38.95549 37.517952 -1528.271 0.090000004
26.783546 37.776352 -1517.3921 0.090000004
16.454926 38.009911 -1508.8062 0.090000004
7.2506905 38.506027 -1501.6892 0.090000004
-1.0025139 39.20443 -1495.7705 0.090000004
-8.3156509 39.817719 -1491.0005 0.090000004
-14.782509 40.355011 -1487.2136 0.090000004
-20.726089 40.84407 -1484.1403 0.090000004
-26.157087 41.286377 -1481.7152 0.090000004
-31.209793 41.693661 -1479.8232 0.090000004
-35.865047 41.736546 -1478.5934 0.090000004
-40.270668 41.486126 -1477.9242 0.090000004
-44.601044 41.235886 -1477.6133 0.090000004
-48.841682 40.986794 -1477.6539 0.090000004
-53.054062 40.735275 -1478.042 0.090000004
-57.271889 40.479301 -1478.7849 0.090000004
-57.161232 42.66143 -1477.5151 0.52189398
-61.518028 40.303024 -1479.8481 0.090000004
-65.809189 40.201958 -1481.2544 0.090000004
-70.180374 40.105888 -1483.0765 0.090000004
-74.691833 40.014038 -1485.3734 0.090000004
-79.323914 39.927513 -1488.1746 0.090000004
-84.140625 39.845955 -1491.5652 0.090000004
-89.182465 39.769798 -1495.6378 0.090000004
-94.527832 39.699364 -1500.542 0.090000004
-100.12494 39.63974 -1506.3246 0.090000004
-106.59058 39.009468 -1513.9081 0.090000004
-113.71867 38.307053 -1523.1603 0.090000004
-121.50483 37.564415 -1534.3165 0.090000004
-129.57129 37.246948 -1547.1648 0.090000004
-136.42834 38.503922 -1559.9421 0.090000004
-143.82332 39.689194 -1575.5312 0.090000004
-153.13336 39.794373 -1596.5715 0.090000004
-162.37598 40.349297 -1621.0476 0.090000004
-173.66138 39.983345 -1653.7155 0.090000004
-189.90921 37.179443 -1702.2024 0.090000004
-273.15558 3.2934418 -1901.5544 0.090000004
-240.71645 22.803352 -1875.6873 0.99193376
-287.45544 2.2278442 -1984.4382 0.090000004
-227.30801 30.42556 -1894.6659 0.94532257
-295.53748 1.0664215 -2073.1746 0.59729618
-295.45911 1.1001358 -2072.9697 0.090000004
-215.32637 35.581261 -1863.3184 0.97642756
-289.12653 1.7523422 -2143.2339 0.090000004
-194.32979 43.379044 -1860.2086 0.94777274
-266.39407 4.1322327 -2180.2339 0.090000004
-175.32893 47.379848 -1863.3862 0.93391168
-225.49818 10.516884 -2152.5176 0.090000004
-222.94946 11.921043 -2141.947 0.63853055
-169.93756 24.790245 -2031.6646 0.090000004
-130.60028 32.596672 -1939.4246 0.090000004
-101.33922 38.060898 -1856.8867 0.090000004
-81.586136 39.614975 -1798.8193 0.090000004
-67.615074 41.119125 -1745.4883 0.090000004
-58.318672 41.452717 -1703.1348 0.090000004
-58.194633 43.277859 -1695.6129 0.60573643
-55.597179 41.638462 -1688.6536 0.090000004
-55.562077 43.030941 -1683.2162 0.62404227
-60.834015 41.408051 -1735.6484 0.090000004
-60.837868 41.3722 -1735.8143 0.98860323
-66.375824 40.349358 -1812.2402 0.090000004
-72.027245 40.460617 -1930.8262 0.090000004
-78.801056 39.095047 -2178.9697 0.090000004
-86.708664 39.230217 -2806.9902 0.090000004
-62.286404 95.962067 -2468.4446 0.79857755
820.98236 89.95681 -2616.6675 0.85796642
1213.7115 -7.6293945e-06 -3032.2437 0.090000004
180.78615 85.553505 -1735.9014 0.78713846
592.87415 51.42173 -2253.0801 0.91706896
678.21149 44.353542 -2360.1802 0.93314648
498.7793 22.423607 -2094.0544 0.96688783
291.49292 53.388878 -1849.2559 0.92777133
648.88641 -7.6293945e-06 -2271.3262 0.090000004
188.40819 68.788086 -1727.5162 0.97804946
301.40631 27.688698 -1839.0071 0.82488781
428.47842 0.046783447 -1981.2249 0.090000004
188.81625 52.180336 -1712.9974 0.91188043
190.0818 34.916954 -1702.1019 0.090000004
129.17213 39.179939 -1629.5426 0.090000004
102.22966 37.038956 -1596.8656 0.090000004
77.911514 36.980804 -1569.5226 0.090000004
58.755859 37.240768 -1549.1735 0.090000004
43.263145 37.511261 -1533.6499 0.090000004
30.408226 37.769646 -1521.5712 0.090000004
19.647301 37.982353 -1512.1522 0.090000004
10.306671 38.239182 -1504.5791 0.090000004
1.6980209 38.971817 -1498.0571 0.090000004
-5.8941498 39.612076 -1492.8011 0.090000004
-12.618904 40.173882 -1488.5973 0.090000004
-18.666084 40.674232 -1485.2306 0.090000004
-24.275726 41.133801 -1482.5012 0.090000004
-29.444809 41.552883 -1480.358 0.090000004
-34.255394 41.828861 -1478.771 0.090000004
-38.704659 41.578182 -1477.9014 0.090000004
-43.067513 41.328384 -1477.3942 0.090000004
-43.356697 43.012619 -1476.4379 0.92534775
-47.330219 41.080257 -1477.2404 0.090000004
-51.555202 40.830345 -1477.4301 0.090000004
-55.77644 40.576569 -1477.9664 0.090000004
-60.026588 40.329262 -1478.8545 0.090000004
-64.315201 40.224274 -1480.0321 0.090000004
-68.67823 40.124031 -1481.6045 0.090000004
-73.176468 40.027657 -1483.6229 0.090000004
-77.790993 39.936188 -1486.113 0.090000004
-82.587646 39.849007 -1489.1506 0.090000004
-87.609329 39.766319 -1492.8186 0.090000004
-92.904427 39.688553 -1497.2225 0.090000004
-98.526848 39.616493 -1502.4962 0.090000004
-104.87064 39.122086 -1509.2528 0.090000004
-112.00609 38.399544 -1517.6862 0.090000004
-119.84969 37.627037 -1527.8829 0.090000004
-128.58815 36.792305 -1540.3511 0.090000004
-136.21594 37.667465 -1552.7446 0.090000004
-143.80298 39.049271 -1566.8054 0.090000004
-153.40692 39.477715 -1585.9332 0.090000004
-163.81607 39.977715 -1609.2355 0.090000004
-175.15701 40.504852 -1637.9957 0.090000004
-193.25307 38.11261 -1683.6105 0.090000004
-292.28445 1.1160126 -1890.3745 0.090000004
-262.88794 21.434158 -1872.4021 0.96737844
-314.07233 0.95780182 -1978.0509 0.090000004
-240.56424 35.223076 -1868.4092 0.85201359
-333.4567 0.48036194 -2081.1016 0.090000004
-227.07809 42.547867 -1886.2933 0.98205966
-296.93008 17.343033 -2065.9109 0.8176167
-344.99408 -7.6293945e-06 -2189.5027 0.090000004
-268.53815 26.797935 -2070.9995 0.92128837
-342.05511 0 -2286.8027 0.090000004
-191.9944 54.699169 -1846.3115 0.72622788
-321.44586 0 -2354.9949 0.090000004
-176.59924 56.867195 -1860.1123 0.88667226
-297.33243 9.4669952 -2272.6091 0.98515153
-277.4364 2.9015198 -2348.9565 0.090000004
-162.61996 55.366489 -1882.5115 0.96732187
-220.78548 28.787964 -2118.8105 0.74498278
-209.8515 14.728981 -2215.2607 0.090000004
-148.7692 29.168922 -2037.7178 0.090000004
-110.5028 36.741806 -1915.7085 0.090000004
-87.044968 38.821785 -1839.1721 0.090000004
-71.1632 40.041267 -1776.0822 0.090000004
-60.652199 41.409111 -1721.2654 0.090000004
-60.48254 43.030945 -1714.1235 0.61069602
-60.641487 41.511532 -1720.8143 0.98745495
-54.393448 41.716446 -1680.4725 0.090000004
-54.385277 43.030941 -1675.5033 0.62786549
-57.981388 41.42477 -1716.8418 0.090000004
-57.768078 44.830936 -1702.0759 0.61237633
-62.164658 40.45446 -1783.5725 0.090000004
-61.920002 42.388592 -1773.3143 0.99120784
-65.762245 40.39431 -1884.7439 0.090000004
-68.058685 40.37635 -2065.7515 0.090000004
-66.478889 40.416245 -2469.8901 0.090000004
-41.716877 41.867981 -4115.1323 0.090000004
-41.857887 42.592747 -4084.4358 0.99985546
-49.288811 80.785721 -2466.811 0.9998554
98.472885 133.78004 -1727.4153 0.94076097
1437.1947 7.6293945e-06 -3418.5801 0.090000004
166.07751 89.503609 -1733.0652 0.77593184
571.58551 60.950439 -2270.7729 0.25512889
826.81946 42.978565 -2609.2158 0.96553445
482.38196 32.39682 -2107.3711 0.97906041
721.7251 -1.5258789e-05 -2404.6104 0.090000004
177.70651 73.636841 -1728.9956 0.56592822
602.1416 16.186478 -2256.1001 0.97704124
297.46219 34.049828 -1853.012 0.98660481
463.7984 0.47130585 -2047.8909 0.090000004
183.01317 57.153816 -1718.9238 0.26945123
332.98605 0.59893036 -1872.3016 0.090000004
139.83615 39.064888 -1648.0264 0.090000004
108.37 37.811783 -1608.3621 0.090000004
84.001709 37.15609 -1579.3185 0.090000004
63.664383 37.315086 -1556.5737 0.090000004
47.524834 37.542435 -1539.5576 0.090000004
34.071579 37.78817 -1526.245 0.090000004
22.874039 37.978607 -1515.9076 0.090000004
13.223488 38.18132 -1507.6466 0.090000004
4.4647675 38.730247 -1500.6754 0.090000004
-3.4190903 39.398979 -1494.8851 0.090000004
-10.373814 39.983391 -1490.249 0.090000004
-16.604103 40.501923 -1486.5245 0.090000004
-22.363548 40.976509 -1483.4872 0.090000004
-27.653215 41.407879 -1481.0782 0.090000004
-32.597385 41.806873 -1479.1877 0.090000004
-37.130814 41.668785 -1478.0464 0.090000004
-41.527649 41.419247 -1477.3423 0.090000004
-45.813431 41.172047 -1476.9965 0.090000004
-50.0257 40.925148 -1476.9919 0.090000004
-54.27673 40.671951 -1477.3309 0.090000004
-58.523483 40.414909 -1478.0177 0.090000004
-58.240704 44.452393 -1475.7185 0.93368977
-62.811996 40.250381 -1479.0115 0.090000004
-67.164238 40.146355 -1480.3506 0.090000004
-71.64505 40.045975 -1482.111 0.090000004
-76.236786 39.950119 -1484.3149 0.090000004
-80.97612 39.858627 -1487.0111 0.090000004
-85.996506 39.769798 -1490.3284 0.090000004
-91.258682 39.685516 -1494.3068 0.090000004
-96.849503 39.605682 -1499.0856 0.090000004
-103.03767 39.260681 -1505.0819 0.090000004
-110.12779 38.526268 -1512.7599 0.090000004
-117.95319 37.735069 -1522.0616 0.090000004
-126.72327 36.871361 -1533.4642 0.090000004
-135.46841 36.906738 -1546.0321 0.090000004
-143.55762 38.173363 -1559.2615 0.090000004
-152.5197 39.38327 -1575.5305 0.090000004
-164.03432 39.639267 -1597.8204 0.090000004
-177.24152 39.824257 -1626.0797 0.090000004
-194.37923 38.906662 -1665.152 0.090000004
-303.86511 0.21795654 -1869.1783 0.090000004
-331.9097 0.86627197 -1957.4963 0.090000004
-262.02765 34.766556 -1864.9612 0.98895139
-363.88284 0.37862396 -2072.4248 0.090000004
-240.02077 47.445335 -1861.9475 0.62961924
-392.89374 0.1465683 -2207.6875 0.090000004
-233.96512 52.292892 -1898.5969 0.85910368
-295.85724 34.166298 -2055.8875 0.74391019
-412.51596 -7.6293945e-06 -2352.3596 0.090000004
-413.98575 0 -2486.6257 0.090000004
-196.76091 63.359749 -1855.8126 0.91027707
-389.98209 -7.6293945e-06 -2575.2654 0.090000004
-180.14523 65.577515 -1867.0123 0.97136796
-297.46793 28.912216 -2263.0063 0.86698472
-340.62387 7.6293945e-06 -2589.8882 0.090000004
-225.99158 41.993683 -2130.498 0.97476053
-267.53406 4.1206589 -2484.3376 0.090000004
-195.28938 38.251022 -2131.428 0.94504905
-177.3322 22.786041 -2200.7078 0.090000004
-123.12826 34.199585 -2003.6296 0.090000004
-92.821609 38.965332 -1884.6407 0.090000004
-74.521507 39.924622 -1807.7352 0.090000004
-62.872749 41.396099 -1742.8613 0.090000004
-62.728008 42.433666 -1737.9409 0.6031251
-56.083683 41.54258 -1696.5876 0.090000004
-56.034809 43.030941 -1690.5986 0.6205852
-55.851448 41.514957 -1699.0591 0.090000004
-55.841503 41.855946 -1697.6743 0.98548609
-58.982624 41.131409 -1755.2109 0.090000004
-58.86808 42.599663 -1747.9932 0.58900148
-61.129223 40.362587 -1843.7068 0.090000004
-60.945137 42.031631 -1833.3143 0.99359834
-60.992771 40.921967 -1981.1844 0.090000004
-60.8256 42.453838 -1968.2764 0.99647474
-55.327866 42.477158 -2245.9709 0.99849701
-55.348957 41.4841 -2258.7527 0.090000004
-28.608669 41.814194 -3053.8066 0.090000004
-37.86702 64.853409 -2465.8223 0.99955475
100.18076 124.32501 -1724.0315 0.71527815
294.92084 105.56773 -1973.0343 0.10752177
992.74084 41.165474 -2914.9575 0.88913
1667.7607 0 -3865.3252 0.090000004
166.29669 91.565407 -1751.3981 0.97381866
627.59546 63.433529 -2400.8655 0.97374177
479.63483 72.456772 -2192.55 0.75675911
795.42889 0 -2556.1968 0.090000004
172.28688 77.028122 -1738.2632 0.94638872
572.21252 27.592323 -2263.2039 0.70963579
513.90295 34.80011 -2186.667 0.96913302
503.05225 0.12145996 -2127.7407 0.090000004
179.73892 60.993004 -1729.2954 0.80426002
292.83487 16.78743 -1845.7681 0.83877182
358.83987 -1.5258789e-05 -1922.7524 0.090000004
190.00742 42.940147 -1725.8362 0.15719599
157.20908 36.821922 -1676.1198 0.090000004
114.21159 38.6614 -1620.926 0.090000004
89.808807 37.424896 -1589.9132 0.090000004
68.634636 37.442802 -1564.8795 0.090000004
51.776009 37.616272 -1546.1128 0.090000004
37.765839 37.822144 -1531.4731 0.090000004
26.114311 38.002274 -1520.1041 0.090000004
16.126648 38.179962 -1511.056 0.090000004
7.2927208 38.479721 -1503.6549 0.090000004
-0.84731293 39.174568 -1497.3099 0.090000004
-8.0862312 39.786552 -1492.1659 0.090000004
-14.506672 40.324142 -1488.0525 0.090000004
-20.421173 40.81443 -1484.6832 0.090000004
-25.83647 41.258717 -1481.9904 0.090000004
-30.882631 41.668411 -1479.8503 0.090000004
-35.549458 41.757809 -1478.3596 0.090000004
-39.955551 41.510048 -1477.4603 0.090000004
-44.292007 41.262135 -1476.9182 0.090000004
-48.518494 41.016621 -1476.7247 0.090000004
-48.65863 42.652401 -1475.8175 0.93603522
-52.774551 40.765419 -1476.8696 0.090000004
-52.810551 42.652397 -1475.823 0.93718028
-57.016926 40.510979 -1477.3566 0.090000004
-61.302277 40.280006 -1478.1798 0.090000004
-65.641983 40.172485 -1479.2993 0.090000004
-70.075706 40.069054 -1480.8085 0.090000004
-74.668434 39.968719 -1482.7582 0.090000004
-79.404465 39.872391 -1485.1755 0.090000004
-84.355606 39.779358 -1488.1366 0.090000004
-89.573059 39.689545 -1491.7264 0.090000004
-95.115845 39.60318 -1496.0543 0.090000004
-101.15443 39.380585 -1501.3888 0.090000004
-108.13219 38.67997 -1508.3383 0.090000004
-115.88058 37.879341 -1516.8116 0.090000004
-124.59569 36.999199 -1527.2153 0.090000004
-134.28259 36.219215 -1539.8136 0.090000004
-142.72652 37.373238 -1552.1885 0.090000004
-151.79886 38.790993 -1567.0012 0.090000004
-163.25739 39.335281 -1586.984 0.090000004
-177.38602 39.449821 -1613.5946 0.090000004
-193.49138 39.675613 -1647.049 0.090000004
-308.38617 0.38160706 -1841.2645 0.090000004
-344.63705 0.36948395 -1932.9126 0.090000004
-387.05682 0.15549469 -2053.3955 0.090000004
-268.22971 45.845207 -1873.8745 0.9370997
-433.55685 0.19377136 -2207.751 0.090000004
-238.4261 59.641228 -1854.7585 0.56305695
-480.92383 0 -2398.4846 0.090000004
-418.59183 15.330276 -2258.7244 0.98394948
-301.55237 49.109921 -2066.4595 0.93355572
-519.07355 7.6293945e-06 -2615.832 0.090000004
-272.52722 56.980492 -2071.8066 0.90456402
-531.83411 0 -2820.0439 0.090000004
-198.2746 73.296875 -1857.5485 0.93442655
-503.2829 0 -2948.3105 0.090000004
-180.01416 75.549767 -1863.9408 0.92699218
-301.88867 47.066986 -2272.7556 0.96817589
-432.03302 -7.6293945e-06 -2946.125 0.090000004
-225.44328 57.381027 -2123.7263 0.86782253
-338.23917 -7.6293945e-06 -2818.4238 0.090000004
-246.66956 33.826469 -2374.7544 0.89993572
-230.86964 9.0911789 -2519.7217 0.090000004
-140.72604 30.78373 -2133.1794 0.090000004
-99.476929 38.643829 -1946.437 0.090000004
-78.242455 39.397362 -1850.2008 0.090000004
-65.146454 40.279602 -1774.6224 0.090000004
-57.566307 41.427208 -1715.2876 0.090000004
-57.375366 44.83094 -1700.6149 0.61297923
-54.357895 41.705742 -1682.2982 0.090000004
-54.350403 43.030945 -1677.2511 0.62697989
-56.728214 41.432129 -1731.1155 0.090000004
-56.701851 42.046394 -1728.3143 0.98837388
-57.811901 40.762917 -1805.7145 0.090000004
-57.696678 42.704594 -1794.6976 0.58208585
-56.303932 41.209888 -1917.1155 0.090000004
-56.261322 42.389668 -1908.3143 0.99556178
-49.084072 41.135601 -2124.1177 0.090000004
-49.180111 42.383301 -2110.7764 0.99781489
-24.91271 41.402546 -2589.064 0.090000004
198.73552 0.39215851 -6577.4746 0.090000004
88.399765 122.36655 -1725.7946 0.89447701
102.69832 115.05148 -1723.2775 0.88937825
117.79381 105.95007 -1722.6603 0.93942195
295.26215 86.019203 -1966.6497 0.95379031
1878.0856 -7.6293945e-06 -4347.7573 0.090000004
600.11761 69.451706 -2425.2566 0.95558107
695.32727 64.277496 -2568.4844 0.97192043
862.11853 0 -2719.2012 0.090000004
161.52524 80.297791 -1741.892 0.94014144
637.81696 25.708092 -2406.3064 0.93922985
482.1275 43.552288 -2189.1238 0.56063378
537.98804 0.16514587 -2212.6343 0.090000004
172.93549 64.812119 -1736.9498 0.90409279
283.67917 23.59269 -1855.6744 0.96828288
381.48218 0.014450073 -1975.7083 0.090000004
182.07773 48.086647 -1730.9788 0.91462648
189.15932 30.234222 -1724.4659 0.090000004
119.5529 39.587685 -1634.5374 0.090000004
95.332993 37.7854 -1601.4827 0.090000004
73.445168 37.648163 -1573.9957 0.090000004
55.95723 37.740356 -1553.3577 0.090000004
41.426834 37.895584 -1537.2719 0.090000004
29.341835 38.057556 -1524.7766 0.090000004
19.029305 38.204613 -1514.8687 0.090000004
10.026703 38.375404 -1506.8776 0.090000004
1.7260818 38.946434 -1500.0371 0.090000004
-5.7600288 39.583466 -1494.3688 0.090000004
-12.375717 40.140892 -1489.8308 0.090000004
-18.450699 40.647614 -1486.1017 0.090000004
-23.995142 41.105335 -1483.104 0.090000004
